ply
format ascii 1.0
element vertex 751
property float x
property float y
property float z
end_header
-0.09341757752028446 -1.7265922716413489 8.039461968586373
-0.04912479875553995 -1.7241800523455866 8.050617998323764
-0.26574384530268225 -1.698235917422151 8.049606788011275
0.039708446986893534 -1.6784093947534517 8.069382814557082
-0.18561200051985355 -1.6915608063621133 8.102202417905401
0.08509268765747603 -1.6619276445834066 8.121775335706307
-0.38119578457719655 -1.6738778584127756 8.177907417521173
-0.29826368067207143 -1.6550054425707845 8.128559442913401
-0.08743274874803404 -1.6322824569562155 8.038863302165844
0.17782957449424924 -1.6153175679383212 8.255904345444137
-0.48621437420776575 -1.5964130725514696 8.186644147575787
-0.3857888935512715 -1.6058407555818437 8.222172373338951
0.10985312638273789 -1.5473128536906766 8.07830112854027
0.019440556436259592 -1.5961236337249816 8.378942404409582
-0.2919520878005159 -1.5536811800620347 8.39349230702547
-0.10272936935674892 -1.5089260254584542 8.20946997652013
-0.4272737859839778 -1.5547001329511096 8.446994560739842
0.04249451032782918 -1.407982007364482 8.060338676454192
-0.46806138368879585 -1.490490737753393 8.482666821473332
0.16848857300728579 -1.4630580035929213 8.40204998595942
-0.14759047717562268 -1.398690307929433 8.093369339210044
0.16178509104577476 -1.3728786426656159 8.16816276862322
-0.415160565336047 -1.4121704535189834 8.353753453038758
0.04338903305070991 -1.376957355070478 8.069072987978556
-0.4220810049894961 -1.3672681640254924 8.447582707278157
-0.0953446194177371 -1.2998586668728678 8.072362576468876
-0.05096763516124737 -1.2963001453930811 8.081240458183313
0.14687761091734564 -1.2618183726746375 8.001239223622802
-0.35872669378251665 -1.3140493374246505 8.48341535651865
0.24609165635164637 -1.2303009851129634 8.070187885107574
-0.11949469883370742 -1.265730977901023 8.33759682274501
0.0692760754199643 -1.2236839852420984 8.113469227384925
-1.156600667356048 -1.1766351053228326 8.057344173887234
-0.3237872546961971 -1.217180843293282 8.491602746698556
0.13867753787063417 -1.1594196531695145 8.214849144663146
-0.0939156752317602 -1.1864010861057253 8.420805656280164
-1.423951131540292 -0.9645119540195658 6.785116515842
-1.0431197120693463 -1.1585637883041877 8.30451885254921
-0.25712884239724115 -1.1515428909951977 8.44334974305137
0.40323421615175153 -1.0756094641145406 8.020171169188432
0.9402854692866748 -1.0723939390870936 7.90514633905126
-1.1107896431504387 -1.1659780222229328 8.45446812885436
-1.14759705694443 -1.1161642923295916 8.116019255683298
0.07399296005423721 -1.1192182196918725 8.481052742253809
0.25285813622982783 -1.1060107146530471 8.425879154422283
-0.12039159019402598 -1.0750727219002072 8.14936348997926
-0.06734029351849637 -1.0799051031074056 8.234269277124504
0.14580627641602217 -1.0790624291343298 8.271227855247687
-0.8797401964686161 -1.0603875086602343 7.941889966438342
-1.3534579521285892 -0.9116547913400654 6.887620741049102
0.3982180105952237 -1.0189712935078354 8.131671869441192
-1.4746142030846068 -0.8636673006902039 6.792191584120097
-1.7839133484282388 -0.9356072141285053 7.487370015353633
-1.1931173977393092 -0.8238732248918257 6.440531202299632
-0.9086836125194108 -0.973848740780895 8.047191083956093
0.5030254035332449 -0.8813984481698621 7.547046075080763
-1.4233594996602694 -0.8097179751645938 6.7956514859564
-1.3749039753154673 -0.7676197909979977 6.3462871207773555
-1.5509181558776624 -0.8085293244067906 6.723458532121885
0.42069318233306147 -0.7907193127212635 7.330923133126742
-1.2842091375667526 -0.7882226289392845 6.9490957951739665
-1.248998016670531 -0.7897215629585298 6.970067092366393
-1.4698564372823542 -0.7554586907385429 6.791224855120506
-1.1806626316776547 -0.8046241963831469 7.367081136476939
-0.8396807369198293 -0.8507339182037614 7.904877745931433
-1.5799140697632124 -0.750239471585327 6.93804424601383
0.30687240628389184 -0.755163072532949 7.140852405206582
-1.4891825947007615 -0.7246216855636645 6.842707398358047
-1.3596649237146452 -0.7349494194124755 6.931420677652513
-1.6246131611359096 -0.7185724757001704 6.896222384369698
-1.3052006933959721 -0.6740619862657523 6.351145890883773
-0.7087191283235954 -0.7020085121115439 6.742627711586926
-0.8484379517211891 -0.705164171704836 7.124404850248153
1.5955487447325514 -0.670855534504983 7.402336012500571
1.7174709782861748 -0.6981319168716167 7.627641390013293
-1.5259555649797651 -0.6838738998718513 6.836520305437993
-1.1734340749122276 -0.6742397721039208 6.8737358308018175
-1.6878347106955256 -0.6878172795293487 6.998792544050911
0.3935807350999944 -0.6256256460776091 6.8909817711138
0.8554587382092272 -0.7209850856882144 8.123414116341213
-1.2638615474379857 -0.584817139546914 6.072369902620822
-1.5084141735592798 -0.5753053574387977 6.1926100974051215
-1.5094624534514034 -0.6208440820312234 6.754277497984208
0.2904226136461131 -0.6161210189127626 7.266238238550661
-1.4375708508068883 -0.5478610011795243 6.116366266261674
1.453574799737106 -0.5790125286776192 7.243266053508842
-1.46188349076142 -0.6072829869238644 6.810517175696278
-1.1190631690385273 -0.5981331071859205 6.906166975926791
2.484901259254906 -0.5567250424673815 7.609114598360663
-1.6584524641403473 -0.5842472481901326 6.767831095461327
-1.423434762314864 -0.5599064607602419 6.404103028967119
-1.2034860128948248 -0.587817097012361 6.944525835401685
2.5257932879101817 -0.5429061051412444 7.517500497173048
2.3852130669063842 -0.5469252846348137 7.6172479295034226
-1.4044848630737066 -0.5948994698324362 7.183628675436839
2.7148851981846125 -0.4987388830225656 7.305385947324674
2.841297670491309 -0.5078907890270336 7.4412902282052515
-1.7147133650197954 -0.5692656608888521 6.847061660431901
1.3174651257786818 -0.49601783323556675 7.0097365653919885
2.9329842376895026 -0.4960154415747505 7.463484588963555
-1.6529398330124097 -0.5676636322063795 6.9719730115018805
-0.5378930918061551 -0.4894716959422448 6.348223641041724
-0.45988785182808084 -0.5132073997972525 6.747897862250332
1.6615287869841935 -0.5051829958328559 7.228640829939507
1.7941634235069939 -0.5120665971587046 7.373075378833782
2.1425033647227054 -0.5083704394884584 7.49562220434466
0.28682495801714747 -0.4712631188289067 6.656416393713573
-1.7437388383681314 -0.5361873816531376 6.955762641002254
-1.4831353466979929 -0.5175453081666382 6.8277655926822565
-0.9815611342138562 -0.5006374355786872 6.537774142048919
-1.6100053253988462 -0.5099341699002934 6.811184148326533
0.37996390370068533 -0.46619593574020873 6.605119551579396
1.4168876702638673 -0.43677864614099554 7.0028605805589725
-1.3635098131359364 -0.48908478398711636 6.764978169915172
0.08492768091439695 -0.45056975394408266 6.773759828057429
2.7886199299284096 -0.42901487844720937 7.532143603892024
-1.2474765925472873 -0.47751256659912056 6.913705112547307
-1.1003335682168132 -0.48362659351833387 7.110246728529782
1.250715850256238 -0.4409155965548433 7.033825111424157
-1.5281191141784403 -0.4260123636231873 6.270364276622476
-0.9978542141125297 -0.4587298867456865 7.0036047379752295
0.1788784094415643 -0.4270137872062879 6.876379527351494
-0.7060897617119709 -0.4244970269539954 6.690852545278903
-0.37077106858923425 -0.4201224912554241 6.74021011931684
0.4183316425160673 -0.39446646465124174 6.508534450258903
-1.420576679158605 -0.44736425213107006 6.747226134306524
0.4532005637806317 -0.38854115190893435 6.4486461867369735
0.5864268836767643 -0.39769518501828155 6.559648681322003
1.3366881482442823 -0.38113109749302027 6.874875195087832
-1.0572000377728414 -0.4304279250872597 6.78705218197762
0.015549731442538227 -0.3893460996353742 6.541020293617134
-1.5620922065587883 -0.3876634155909944 6.32431595004967
-1.0125703605507612 -0.41968891770477273 6.942387305394691
-0.43680920209872476 -0.37457341465899585 6.466495004553657
-1.6377613457421512 -0.38753652833090607 6.384489645619886
-1.33910479810267 -0.4052517558867775 6.668714617378455
0.36792455889594805 -0.3464202855635087 6.453863808250472
-0.27988951960724767 -0.34244898345196406 6.387734812904369
0.17677071383923257 -0.31385809315778634 6.353552452193555
-1.5494849020541213 -0.32780965376041565 6.335795154622356
-1.6948063656823127 -0.37805430393087697 7.15687657640061
-1.4374087016632004 -0.3175404111857743 6.221294020816981
-0.31357008289592064 -0.3026260378391984 6.418043819507015
1.6349125270046772 -0.29497573941712757 7.279671078351924
-0.7488151804941822 -0.3179819623797225 6.783296292823092
-0.3746304660014444 -0.2731630933725426 5.9209113498437285
0.931504647598015 -0.2885045209321783 6.666368358964638
-1.4938547306404628 -0.33967705446751023 6.828223985919665
-0.4447239500451199 -0.2895418593303048 6.247968226276924
0.10680996357838421 -0.24756929065368957 6.155233951881928
0.33914827012277643 -0.25256794761463813 6.12249931138548
-1.4050343150498168 -0.3133063381895101 6.802628436748223
0.7888064303726996 -0.22616510870953208 6.40457244805403
-1.5353719307344338 -0.2749071506397491 6.626275251177987
-0.05958202744224141 -0.23452943014090177 6.299467857183408
0.02231145260112597 -0.22585277603607748 5.724909949227404
0.17863350645873433 -0.22478908255201802 6.238234110289294
0.40343841392197205 -0.21139242995065832 6.133235780692934
-1.2629270781520638 -0.2803479751279212 7.068387208987384
-0.612168745192616 -0.2447773019608362 6.76545827306469
-0.26190713614378863 -0.20712114059964756 5.761053753499012
-0.1848985913899005 -0.16404933431678198 4.61529309734588
0.8839349398230643 -0.19371467728753286 6.3277934805996825
0.47215933520382664 -0.18053101406850694 6.071901064239452
-0.9547965308229197 -0.2439492482021071 6.899077357340955
-0.31587717704284834 -0.16525423487245774 5.535846873188372
0.3304910735735912 -0.16981370544713498 6.08598036845442
-1.2324319053746926 -0.18985410157241578 6.688399923675933
0.8959767138560918 -0.15650684332697085 6.313540589035079
-1.4481719400982054 -0.20137528907787575 6.664709079063686
-0.5035539543847442 -0.18109190395039296 6.625849579756722
0.7662116164263472 -0.13391086678138434 6.02626237294581
1.0550129344550865 -0.13813771562046787 6.329846581476472
-1.1541511046056596 -0.20973055767440318 7.368063744809922
-1.0832088314255208 -0.20893426756601619 7.338414402142794
-0.20250059214733884 -0.11342668183877369 4.67002452180232
0.3917670835619317 -0.1331752211342212 6.095630121361392
0.9760755342472899 -0.12919192555513315 6.338777304374664
-1.6797810662926618 -0.20746302443909856 7.217723806424589
-1.3605216606805912 -0.1871064859618232 7.231989539096113
-0.5026209296983095 -0.1466939456170565 6.2135935778544935
0.6150317161458877 -0.11081175639779411 5.87435621287012
0.15451349833120206 -0.09449792769756254 4.911630952640306
1.350450201606564 -0.09614025692375885 6.860524130332867
-1.4261065707030525 -0.15889521734636705 7.316848200772351
-0.3926669220494869 -0.08862540982483721 5.094697263198096
0.5111081924142857 -0.08550986209647946 5.997923143089633
1.178703715925634 -0.07064211481440509 6.47369251344261
-1.2048728544690237 -0.13825042028368037 7.4669210341314365
-0.32694473021036413 -0.06990550362265573 4.971688469229743
0.05227577720432118 -0.05681387726454799 4.715590152131485
-1.4164327745745806 -0.10124749912076668 6.708683084502326
-0.1611599286644355 -0.047986578744214255 4.705575721161403
0.02392225048728141 -0.04184123427951357 4.649665428292147
-0.2772378387608166 -0.04723860971159332 4.906291133752718
-0.2305513334261961 -0.04405402827665426 4.85904639359824
-0.19808010755329758 -0.04300449069605407 4.841843933425659
-0.327152346097018 -0.04750686392273447 5.011624386169935
-0.057874691259099685 -0.02738597455511548 4.643005764484429
0.7043775468758167 -0.018639363272991906 6.213148936722052
-0.40906018217442547 -0.027006953102858187 5.044197540080178
-1.1044185077109336 -0.0464227175429643 8.631800205729496
-0.31731615131994967 -0.013067715397627383 5.018950979750329
-0.1766031243750085 0.001887279318030672 4.747071019111862
0.0708714354887272 0.0024336430674504117 4.650820903697072
0.39189358045091766 0.01785572006927721 5.544095375628541
-0.20104371067027058 0.01642900352282357 4.74681441165854
-1.212207233934153 0.004154118740708297 7.9354780223034815
-0.12915573200236252 0.028331653560435096 4.717654513333237
-1.8208945099506952 0.021402255730786926 7.7296153903494655
-0.37242207056975474 0.023167357434588205 5.072697742704628
-0.24984278812180583 0.03507808849988001 4.940365801037237
-1.4197291419521687 0.019707544461828253 7.337178185341687
-1.385757271466079 0.02246905387644997 8.109506273172373
-0.33060962603520955 0.03648288773337917 5.0735092614320925
0.05512812720459867 0.05119641546250556 4.7609392746478925
-0.20065719111171 0.045305684269552234 4.642295833618287
-1.3929532394921418 0.08704916998271987 8.840926476860135
-1.3608082143573481 0.10828795807545613 8.276893458009498
-0.24715093680349962 0.07757925012072299 4.79978036367345
-0.18021998985806842 0.07975235193371408 4.768872335214689
-1.3356611132006044 0.1332357321402866 8.591361338105704
-0.327500068801225 0.09763906361538902 5.087279275010173
-0.2210169013224721 0.10746283390352245 4.822309636374608
-0.10963781546774298 0.09688426000860888 4.696376243294191
-0.15081207708340605 0.11648548152479203 4.784574780231815
-1.5691409301347994 0.15489164681184608 8.002180803175508
-0.2601763413760209 0.1142433259989447 4.833798559269573
0.04510541388744533 0.13043875879046316 4.8367503015149405
-0.1786179155519625 0.1397004367824237 4.846749141673826
-0.02173465467846677 0.13077211265489794 4.8261233244676705
0.005294995420038621 0.13359663686724313 4.736595528407828
-1.456097897565176 0.20453810411862902 8.339653249706005
-0.12449626686534665 0.1536523838503907 4.80066697552271
-0.23627610043288186 0.16341345932569798 4.849534253322088
-0.26581368392966676 0.16357675722152992 4.933101461524039
-1.5804002103185222 0.2791372414161832 7.784236881300908
-0.13149547791956318 0.18037531290151726 4.816571720291298
-0.17938920903243133 0.18711913698806937 4.845287310843587
0.0529981924594353 0.18478984531842563 4.808197031035993
0.10650871693521648 0.18531519800804436 4.787581288848924
-0.1784616788381735 0.2248477187478715 4.8910745060805105
0.10986602932610927 0.21363336356320337 4.761257937465334
-1.5824239402822045 0.38127422569327457 9.20342685643476
-0.14255368626162024 0.21358194700477737 4.816362036254215
0.141653895413698 0.22443256669508796 4.789613027492066
0.040341018009701114 0.23311185818507058 4.843296332046712
-0.3048487032372564 0.23876994889155345 4.995182360221741
-0.2519728781754985 0.23725491624646836 4.950892038096735
0.09753547995174527 0.2625333303595819 4.853099311372844
-0.21676003212371925 0.25515459428169945 4.863856776294278
-0.1618889073882853 0.26937022254392257 4.890865230641443
-0.06287453856473628 0.29319239054424123 4.963260263517941
0.07144867519233349 0.28086978502636695 4.815006040168127
0.1343918178484351 0.2948572385001784 4.906886751378902
0.2001781337119611 0.2979197676124657 4.908682127383061
-1.722303135086337 0.47115777367593303 8.410208374235099
0.0726559116267546 0.3590783661528111 4.957643504896416
-0.07119121012187318 0.47864428789675234 5.9696619771846375
-0.06111719487482374 0.5576704487273922 6.138570568049359
0.21608700742841924 0.5528806624375805 5.751984386781568
0.16154991764389462 0.5739936784259694 5.903087891689038
-0.07336752132970605 0.6253828584956624 6.168078813444918
0.6652109929322183 0.7533463630155909 7.0324752639744785
0.050304717168604275 0.6678601971454374 6.2482904524732
0.1749378600502334 0.6351516550150972 5.933449734151594
0.08222124355368236 0.6608030210350507 6.089343908664751
-0.09739465740633947 0.7010706519531336 6.334024086797768
0.2600381491644547 0.6892421485901132 6.021714493344088
0.1293043665206365 0.7347827514826333 6.168613553583797
0.20404482372575092 0.7235376538231385 6.027439807446607
-0.09280665507254052 0.7797958729061177 6.287036281756112
-0.0007836604728687684 0.7811437500244164 6.230908265825541
0.257264129996401 0.7484584447485013 5.930970817383268
-0.25422718446939263 0.8943368822985138 7.094109600033034
0.2139764754837566 0.8207625237388646 6.172449364984663
-0.3801965126389339 0.9757779014472854 7.622227416898717
-0.2598918823899407 0.9588676633663507 7.21646507794749
-0.07609604248785164 0.8702435986145003 6.453648651675496
0.08020409547832137 0.8450556793572417 6.238870134219267
-0.1843106960440892 0.9035173082796116 6.650346974379903
0.6361450575464973 0.9810440367482269 6.9578113813762545
0.25536722168839454 0.8506196425479383 6.043038003992494
-0.18277567609195428 0.9339959552439867 6.641151916221831
0.174714891374999 0.9112129792877905 6.344869976848106
-0.0820415717467632 0.9542543605818051 6.657087784880805
-0.18336479495443345 0.9858686414874578 6.664517563188438
0.4807460827481475 1.0372641442927666 6.867164785582443
0.5024408772744746 0.9963263548431174 6.6233170835869535
0.9519327597880524 1.1682547780603036 7.530059024802784
-0.14925656768451318 1.0327151062223265 6.735432162063452
-0.2190741669322298 1.1240779351651968 7.278563503190454
0.7558775674435768 1.1182064259795559 7.059997965500923
0.7910224195470931 1.1241115857157846 7.042646076222981
0.6074819710687981 1.074244053690591 6.675387632538274
0.7854663825999019 1.2055806878150832 7.058383462763334
-0.4505234890682427 1.37203248217874 7.99101886073328
0.9219871723744997 1.2520588893611824 7.1335139360194475
-0.07748943431021982 1.1873874271273304 6.708914089743621
-0.44787370166792256 1.3774802362371164 7.7847825876739805
-0.2040590272668551 1.4093129283609709 7.846116198421468
0.6601761607811789 1.2188342474158658 6.623711688431996
-1.0827638049718238 1.9230951180352833 10.209899301687553
0.7684185364132429 1.3109438899681856 6.7385989691576444
-1.096679737533731 2.00351973771273 10.32705156053714
-0.6169462245465611 1.9181377840999267 9.92102486094397
-0.44538806144981435 1.7233736408161007 8.671292288825768
-0.7129668972097495 1.906425322636071 9.504058366688424
-0.8929242810844654 2.020936069187237 9.837128300581142
-0.441384222912737 1.9257211818540334 8.975327191260433
-0.7113667164575845 2.0426718725193957 9.464090098827633
-0.07096715657656494 2.0112843712529336 9.26749397407676
-0.2561185563983843 1.9107433222144823 8.705976573191617
-0.638029032390556 2.0603823425014296 9.300080254252396
-0.9044727143473363 2.200719193813674 9.747368523441324
-0.8839394344712531 2.193901218652107 9.797445123399896
-1.0147200917641703 2.2643643533281756 9.896067844694212
-1.2494810827627894 2.1640969096554104 9.472102962221523
-0.7480853440265804 2.2052635850279745 9.632333539347922
-1.3540039705050322 2.2718607768437113 9.697930786127682
-1.2330064354746375 2.223641143701873 9.427373352342947
-0.1605750758971534 2.3756995926420417 9.702716630620147
-0.9313402197955781 2.438890021842938 9.927893899251597
-1.540634588444241 2.3976814350568234 9.838999427822143
-1.4397205940241813 2.4278367052849914 9.896527842961284
-0.7212377914432696 2.4969364608154443 9.866758011911969
-1.2537444930282458 2.458982018559396 9.81275126231261
-1.4316093359900046 2.387089064095186 9.434582349105371
-1.3272009318754379 2.493167399312269 9.742544845176045
-1.052879394574432 2.7292241709190534 10.502487264979347
-0.8557488300143021 2.5849954555403443 10.041498396167631
-0.26156824535202694 2.669307154336485 10.085272009931167
-0.7270656418287489 2.7722000205480377 10.272279423580665
-0.35896308401498483 2.8088138737869155 10.18285053773508
-0.6849828129144248 2.8373962060776927 10.164400319443294
-0.5822499265945431 2.8587550154034806 10.123927096424932
-0.26891587347121926 -1.2999334336268515 7.291998967368085
0.6885251682014916 -1.07985627364884 7.393386826874633
-0.30244301137474827 -1.2626912732741757 7.38815812510301
2.1014014578391977 -0.5525281802825137 7.027558311741658
2.896327679523738 -0.42044282573113606 7.29023202274449
1.5425204116237077 -0.6428142791477276 7.025126451691187
2.1561639377680937 -0.44354249744775365 6.99424435434384
1.560580993864954 -0.586542878958917 7.328369843464543
1.600618593670336 -0.49991856006561625 7.009783716632807
1.8962679312468746 -0.40186213264616544 7.145087965680749
1.4447027735816118 -0.44054834598250603 6.78312650922688
0.21826814442480716 -0.6342379317848843 6.480735760810017
-1.005928113619834 -0.946417825681222 7.11958717091534
1.3986567381020347 -0.3523006656220774 6.727574436041633
0.20483050104466596 -0.6153303152232399 6.546733138694708
0.40918959412775446 -0.5523331419389065 6.594086486127493
-1.2508152904778376 -0.9521392244658496 7.132532991998421
-1.0504064754596998 -0.9036084363561849 7.084679481616056
0.5964311463948323 -0.49786121960492785 6.726724644507304
-0.9026916833149533 -0.7758518181059347 6.772644460501505
-0.9849042602699449 -0.7492307037425892 6.3736578898590635
-1.38150505418227 -0.7849508985445088 5.939349666784516
0.7395480022940725 -0.35365422349673575 6.5441101353908975
0.9679668533329476 -0.27423511944482026 6.543261038525577
-0.6007240105097184 -0.5843443023659353 6.173887392680431
0.4222286593385414 -0.36698885564910716 6.27372850361852
0.6893669818720964 -0.33307201994922153 6.535626248083369
-0.9227242617014043 -0.6538805008023104 6.2065963832830695
-0.5602819383835552 -0.5650853006609471 6.169539492080141
0.31229063640445415 -0.43145992966832386 6.956337287134842
0.4500473521245227 -0.2806927914927047 6.0991480812359224
0.16247649208892653 -0.3250902339541983 6.14391500875631
-0.9450246743020229 -0.5601276535096006 6.089643866074004
-1.7839962712069692 -0.7013680635852184 6.621307827431449
0.5131079131370523 -0.17396311788777538 6.01704751421061
-0.9874275730402156 -0.4872976127118191 6.194613459918023
0.19944711252833425 -0.15847339806272837 5.88398023932053
-1.4698365357382506 -0.47217428856760457 5.782989023867361
-1.6618670483754623 -0.4987167250623824 5.902833962848082
-1.0716765666842143 -0.37876205183724526 6.108483198662195
-0.5127658797976719 -0.23693608533196409 5.6995920572301575
-1.5697318138888148 -0.4665553609505077 6.009625005083967
-1.9119147142740494 -0.5519224240488283 6.870947572925563
-1.45008418529624 -0.41199459086966395 5.801901152604113
-0.2385923548780242 -0.13872923730502848 4.785942538137996
0.3601644070300597 -0.016795257209533936 5.587894226545271
-1.6610381683460653 -0.4487725918485331 6.065019346932464
-1.2221507458709868 -0.3503367958027186 5.816765353640924
-0.12701964335310653 -0.07110944824701715 4.686600770599444
-0.25550416565339845 -0.09138024280678876 4.851254523459568
-0.10666407242323686 -0.05900274013742887 4.6702266201264955
0.41785957542546776 0.05520147584040139 5.508459752762042
-0.5457712825779362 -0.14965999450162548 5.920104113342756
-2.079299281377023 -0.4690723689336494 7.237146255881405
-1.5370346704392521 -0.3266960910778488 5.879326966908535
-0.11537306638364482 -0.016087817153634554 4.677066824146411
-1.451675583924508 -0.282980444703377 5.903594299600499
-2.0901414758756784 -0.4290421556329207 7.253479296561027
-0.11131010685067595 0.012448822104111716 4.705421134699267
-1.8572395585919894 -0.35072473441776597 6.457068477833476
-0.2783716817350296 -0.009405968954877537 4.961927994800942
-0.14792602071511682 0.026818570882472734 4.742402535933445
-0.012984099515089099 0.05735728088182274 4.701718461698486
-0.08471460815761277 0.06156753010937096 4.707871496696892
-0.23608787428108535 0.04745481692905063 4.801648211285007
-0.13819234763636745 0.07427038029306235 4.742322919007269
-1.520316822427337 -0.16642679548419145 6.26632846001665
-0.3059297501161466 0.07651213626908439 5.053822827520064
-0.24762755946618742 0.08922088033065252 5.023443812312191
-1.3752744605965708 -0.13283237655697855 6.088912727593054
-0.38082499483512144 0.08108317113398608 5.166983737733155
-1.5565203327728432 -0.13081585843723084 6.353537493411149
-1.604719041018513 -0.1207529974777534 6.479408943418955
-2.161571107547537 -0.20040957606777263 7.462113943094751
-0.23190868208652562 0.1602554219826372 4.882303884945946
-0.05101352514319857 0.20098238436083865 4.870277015133209
-0.19118270579016441 0.1713586997765013 4.881559908463141
-0.33262855760449034 0.16564653269547974 5.161148870837139
-0.218937053271993 0.19274414949637833 4.872067255970889
-0.00944080304408501 0.24668081728428795 4.911042916603213
-1.4434829794141997 -0.003154102416939088 6.335420377923994
0.08334691826742563 0.27305939177621563 4.913772207644131
-1.9467152665802003 -0.07080934906118126 6.9817696135599
-0.22230539644889913 0.22319978297840454 4.953506543807559
-1.5472771444007694 0.0358802345639264 6.726727851659761
-0.01174061386338894 0.28391397842703975 4.911799357312781
0.06080284611822997 0.3024033143632311 4.9328760062984385
-0.18968643472999883 0.25575015194560813 4.904016343622554
-1.7846572490484691 0.07437338209566131 6.882153870207304
-2.048950920814166 0.041419731662849985 7.077556919822088
-1.5686658400376625 0.11561289730610269 6.629298147733821
-1.712520533527873 0.1310818529348992 6.890726549924913
0.02870334612055449 0.47517043137390985 5.847312307650762
0.07381332485579004 0.515653402662317 5.800708533933707
-1.5799775262150095 0.2651645947515425 6.881087149572016
-1.9347595890533462 0.20247619844045317 6.815733773174076
-1.8673692550831038 0.23092033742622833 6.8916060934951195
-1.7892603801599734 0.2814271035634062 6.869307833817724
-0.14667583176329815 0.6176340435344241 6.37044554142288
-1.669781988663542 0.3166947870659971 6.8122841172877395
0.006519889682426044 0.708853907581753 6.307015960434587
-1.710753531375179 0.38432288113690244 6.862608893411753
-0.21564621477065243 0.8642496623817322 7.8368835250156295
-0.13565286925585954 0.8940169195500527 7.836891308153098
-1.7725382741557245 0.43735262778879763 6.926003826591775
0.14711084938090666 0.8305309545676482 6.363003114448238
0.09626108700055558 0.8582887249847914 6.393123289320598
-0.23981295768541688 1.0175502461643546 8.119276366627885
0.12220405977572708 0.8543597889644847 6.302751655765665
0.0582292755353744 0.937824737417467 6.492654488685806
0.13155049996496632 0.9649092849522929 6.491567678508688
-0.2188738930387956 1.1126368384862477 7.854095657622731
0.021001588186155367 0.9956651468656068 6.628479871495193
0.12327342742200871 1.0035575686885245 6.4933089659439345
0.09554028728596284 1.0264043701960062 6.585834055510841
0.1887187946581721 1.0537011028590983 6.530774166369921
0.730540168003368 1.2647163563026202 6.967677726566708
-0.0841808214867648 1.0565559301285705 6.813624929659669
0.022352998818271054 1.0898138585255395 6.737584230895912
0.12912933934728194 1.1346607093407952 6.71589809510915
0.25842827035814153 1.2056892731206328 6.769425267070761
-0.05374767648246514 1.1602105703998038 6.8972615795214605
0.3281420526786827 1.204456554045669 6.629067828756134
-0.6787801520177924 1.6915975705274642 10.697681782452738
-0.2758143472917179 1.3736738548233365 8.275321039782774
0.033793200610897536 1.1889767250551437 6.861176021650446
0.11792924894924249 1.2237366713430748 6.854967903886154
-0.49027689748093817 1.7495012168149737 10.436075311503746
0.1979529680928874 1.26376000712599 6.835063959896508
-0.6112831952713987 1.8580918597532148 10.964344079132797
0.17691984218649223 1.2979937616317532 6.880110005131592
-0.5431799982779509 1.871615061694764 10.793397700637762
-0.845388586400404 1.8541660669031967 11.058984481422547
0.19678071148198212 1.3508076712173989 6.942392419667366
-0.9715101199595253 1.9385737985785443 10.999656673109625
-0.8444441677826184 2.018597987728415 11.23634970778695
-0.3901436554607664 1.7475673802406606 9.290031582313187
-1.034376310826194 1.936657443323649 10.877567661089785
-0.7443410939916499 1.854354635826271 9.990740482965156
-0.2774016503367277 1.694437512726596 8.58243386615736
0.6232170192315157 1.7473676214421905 7.690865422842922
-0.8839710099966417 1.8649883226684427 9.825636474699767
-0.4972575616078193 1.8814983284495896 9.341390230496437
-0.5675403787337976 1.9605123828751423 9.520401941322339
-0.6724490990941197 1.9942612870750802 9.695103458830374
-0.5629586593913607 2.024041245330876 9.520369889100435
1.0474304366645621 2.0454812151043824 7.865215111089217
0.919993138565478 2.1077476137553077 8.158223677753206
-0.6352279611867404 1.938079842433235 9.032428318618908
2.1018548826304633 2.8567947509609644 9.380429419354808
-0.7167140011031072 2.139031982824095 9.294938446894207
0.9011769248410734 2.2429362255236867 8.110902470591007
1.0582116549941383 2.3039616642404477 8.200402380381458
2.2101021863411 2.9108484026192794 9.257850212574253
2.2249951451394767 2.915817846000598 9.166866711488794
1.686216703107911 2.745683512306556 8.916691429161654
2.2590891458220295 2.9711532617871725 9.142516095279655
1.9668887111963391 2.946781627251196 9.163450618812417
-0.8384335333549934 2.385658379889923 9.681449805927967
1.5801770744385464 2.864464396407188 9.128566427071355
1.6998885798406016 2.9161469560920366 9.099557766409745
-0.9510861667420705 2.506492141284005 10.003589282530921
-0.7957062349091654 2.535383574350944 9.826691069876505
2.2033777639810004 3.1243237846787935 9.206853744405846
1.8779839450899607 3.0035286240779167 9.043655675241503
1.8870321594203152 2.951511865824509 8.854290493859569
-0.5091020950751178 2.6244279119250504 9.776388291650296
1.0474185888831389 2.676453205744315 8.588655343888135
1.4091091617937128 2.8534511647733347 8.896553130585245
1.885753265569374 2.931951032857084 8.713344417787024
-0.7980606797558658 2.660460845843445 10.097434373660759
1.6383769617253323 3.0173588834537584 9.069571686517845
-0.9264063773874153 2.7222794501190437 10.202852375897459
0.9820500924298479 2.8005892315097616 8.847662691592612
-0.7657908439966081 2.774818399225615 10.162942778445109
1.7754137930611018 3.0156418653625465 8.743173298283017
-0.8055095620185784 2.8416214706256717 10.340775595580693
2.2555029707401424 3.2652704407885724 9.160147935118182
1.334609911875212 2.89252880550633 8.67130349673076
1.8869198327291672 3.051469586663693 8.723332154983416
-1.1764648210959023 2.653053531267725 9.923725618170877
1.2370836965372363 2.950855545988265 8.777448767596892
1.0158113121796823 2.971310852397806 9.00360923801499
1.1324943928292863 2.9822272492585364 8.921961372963466
1.780016276257733 3.0809269576807634 8.628857837710854
0.9973180291967235 3.197533930142188 9.384475467277335
1.545296086236792 3.164694414025863 8.726337337332112
1.0977874667794427 3.2357396880896214 9.304358211943175
1.7385597582444463 3.2617533321068737 8.81738844776189
1.2044764974208866 3.2570418962033174 9.186067558907832
1.315445930485593 3.1609363519596068 8.800514160811069
1.484701391780243 3.224834808995197 8.84301002563344
1.4854023828542267 3.1834678451616503 8.682837731173198
1.291263211738508 3.2572420835421605 9.0520482824801
1.3967589097062705 3.365159495809566 8.992724853010353
1.3785163199744952 3.478171471729475 9.192456558459122
1.3373633479994576 3.572607695665585 9.47781227272148
1.332098660514255 3.7118738432994043 9.856241924802303
1.4944678004974772 3.4541535202485067 8.98972933287246
1.4428905051618972 3.550541732869625 9.230523543047939
1.5900846960977055 3.6469338415141888 9.179405956252381
1.409370033149565 3.746562779342278 9.55425510830379
1.5479085699901787 3.8125828655990066 9.476468802033798
1.6626853565317068 3.8478084553806036 9.386697396682147
1.437662378571738 -1.306634461806065 9.638096764351737
1.6020468542070436 -0.9036285972325931 9.19237532210113
3.21696604364105 0.9876391163617869 7.866725914208876
4.05456382138766 1.3926442145215696 8.678773447107407
1.174555157772124 -1.1476602332733192 9.058922925700047
3.2854484372301576 1.0790348804739753 8.000469329396239
0.8108545240074236 -1.2618148787510808 8.76729420141008
3.2141931732897713 0.9043661307331475 8.387543438223448
1.2457320336068618 -0.8804014353045617 8.791681602791417
1.0218215434973965 -1.0863208131337905 8.910750441571315
2.833622299244415 0.49762840767168076 8.77203856942651
2.7685496907460827 0.727826911674202 8.032824824635659
0.8172823654644096 -0.22726250878574356 6.380901817685563
1.1885347918182267 -0.7883549608095256 8.592665740982188
4.850149925299238 2.017930288245086 9.263524364313405
5.860892480797601 2.511486073331398 10.11898117907155
4.6996650640796656 1.9930749486404722 9.027454250132113
1.866264014417118 0.30081346895476085 7.419794167161832
1.0825967527977165 -1.0358181399838593 9.179818522604482
0.5580051324155467 -0.7178954283142196 7.236465996680313
0.9229731140683364 -1.1226841165553791 9.112059395420982
0.5086509193662491 -0.3159116661125194 6.177790301808133
0.8145487984360681 -0.154227576175961 6.4289826791782785
2.8432627338976686 0.8205552329677229 8.281659650690747
2.6594147746628747 0.7801809319180845 7.982258389124482
0.9864887696088948 -0.067962325266828 6.574480652867174
1.811339678857557 0.3809811091733306 7.301515445897162
0.8654472223970678 -1.085185943478788 9.075044874949443
3.516866910441979 1.165563855328164 9.080151504766993
0.561658042746706 -0.3029154314321094 6.4048775415728025
1.7941619929224044 0.3660489266203909 7.415069346833501
2.9504379006531827 1.0324624394923039 8.31051955640218
4.907786937687906 2.5570635102403236 8.65348064939067
0.7439818214739108 -1.0881606974872908 9.0355251513499
0.5762324823014127 -0.4821193036616828 7.061292003768813
0.6121074862884249 -0.2487809968144218 6.533135695025284
0.5480757995995738 -0.5436492310238747 7.233318817638233
0.3899619988905721 -0.25454278274310305 6.066634952941859
0.14786707309456015 -0.4046676193792111 5.942054753545922
0.6298203023585118 -0.6133541889668392 7.704590733055921
0.3413867281302581 -0.18087270134933456 5.869394004548277
3.7923206305058184 1.9948875341649113 7.96058432250324
0.45357417049820037 -0.48603437274218725 7.04619110874393
3.7786779196593647 1.9237432519336854 8.315467215251278
4.656660809554935 2.4404485080067597 9.052590308726163
0.2217068404481899 -0.3341224687252071 6.174991387945123
0.1378152357206903 -0.2679959212323974 5.7991101408924
0.39615733169936906 -0.4768625183522925 7.178439486231449
0.5882498354043566 -0.5046828319182649 7.744776056649161
0.2832403972979505 -0.2334629969905185 6.248813418130105
3.81896419573049 2.237481138803373 8.109370314726963
4.504962320442899 2.665896265126906 8.623983945703685
4.092082125525878 2.289870487981243 8.852824340317706
-0.007459256313921712 -0.4362547225526362 6.401358252221348
0.15666562999186434 -0.19560117443795322 6.129292128831839
3.635169379030584 2.080437181042053 8.494472011185069
4.708112459697136 2.6736924267715403 9.596803560431969
4.584066167491736 2.7318453795290236 9.179848895653059
0.04128057298988303 -0.36071654242490964 6.46056062967746
4.501948328718583 2.7694839464921253 8.90536042539334
-0.12581406202183676 -0.29549598705232194 5.8652448166439815
0.029118076368676346 -0.15901241734443633 5.905480431225524
4.411135838168217 2.650296285885265 9.30071350639823
0.006325172908186041 -0.18026986750911408 6.0043873529767104
-0.23220134064614875 -0.33267197212791116 5.825732063925857
4.491071180123042 2.6513815298780514 9.602969924557565
-0.09818858369786872 -0.30506171533977816 6.196153364538226
3.882664041135976 2.342555262932181 9.03087898348649
-0.30300544774423316 -0.42729618048693097 6.036765869649886
-0.3649243819250977 -0.48274894454142026 6.231716718816817
-0.3117236777549247 -0.39575308505503903 6.079382500823949
-0.38849833129699635 -0.3253801649356753 5.6476617920881536
-0.6563041809770828 -0.4983548541884655 5.7518393835151
-1.154079684435721 -1.1568244126330425 6.7241773797460676
-0.4578933649764315 -0.216895697747846 5.7401399327328395
-0.9342176524940713 -0.9877043689038385 7.022657030593829
-1.2171831305141672 -1.0952219068337623 6.750058929041525
-0.2889133264991828 -0.05364769781195687 6.1291871138619785
-1.1647660393876162 -0.7189475654612089 5.736290872589504
-0.7060653036367118 -0.28163652141478346 5.710293538967242
-1.3304148773835918 -0.8362797067359924 5.596465751494168
-0.19440019693495253 0.13858417094580147 5.966903038069105
-1.262189917456506 -1.0364812584764298 6.798644247097163
-1.2514237801500636 -0.9291147663209659 6.513314979014023
-0.9643649304169596 -0.43061016535750274 5.627586070286683
-1.1872114559985822 -1.0674680609693235 7.409435522544933
-1.6837452773710069 -0.9254368493422221 4.986288086422036
-1.5607205342455115 -0.7738994410192146 4.9290481419906955
-1.3928423565201506 -1.0297275902588692 6.889711788660086
-1.3666676790135925 -1.046121603950528 7.115554120415547
-1.2649193875196598 -0.542309133033261 5.4110098000252815
-1.5773302389311987 -1.109859907219692 6.6036532204921965
-1.515425570770568 -0.9253889320608132 6.13846886966561
-1.2832520620266177 -0.5190203450001915 5.443844362270982
-1.7041207810116614 -0.9652447887181764 5.770559881515093
-1.6844988841379884 -0.883332404042488 5.521443988960742
-1.7080669231655128 -0.7676927312349315 4.940702192465281
0.5642135085808428 0.8358878217586381 7.941775173391514
-1.6587569668931699 -0.7031567755302527 4.935236341515507
-1.696294836343533 -0.7193786856846043 4.939105766148676
-1.7802006416248404 -0.7969283839538351 4.96426508904629
-1.3867091516276877 -0.4877628274850312 5.3828374579787335
-1.692623632444334 -0.6415891236449351 4.889447907911364
-1.6352862997891564 -0.5854655594801006 4.924914593028867
-1.7829903308061934 -0.7247924536587693 4.96931780083007
-1.7185627924246303 -0.6465538271623887 4.94733236310574
-1.7840307106361268 -0.7265483384633007 5.055070623265089
0.5772789503171258 1.2518849773504104 7.057605451290709
0.1104546496526063 0.7699296104588844 7.241767427510901
-1.7234781144009468 -0.91453857108683 6.799323836692377
-1.8139949765573176 -0.6822762040698643 4.946152543261411
-1.6002844103676823 -0.4648567990023989 5.035367577804779
0.370838578131232 1.021670647430631 8.014927299247892
-1.919078628389714 -0.8457239711461724 5.422163602900387
-1.794171226371575 -0.6331118130804329 4.96490676769239
0.11362142747997349 0.9140440003240574 7.448692155942794
-1.8525769543640265 -0.6675367253199433 4.95513107645513
-1.6840089859290615 -0.4949493674208595 5.042279037780224
0.21868003705194103 0.9955220284944626 7.863561687644146
-1.95937600354443 -0.8226488933318192 5.487237840088437
-1.860853078199076 -0.6461191214950349 4.990769625953722
-1.7459908976258631 -0.5317580659803959 5.045972336198439
-1.9402198759332219 -0.8772911224570421 6.094981837253704
-1.804978110281966 -0.5603065140169212 5.001842518924098
-0.016417272157160163 0.9534991899241201 7.183110733422055
-1.6610191383758925 -0.4039208006910021 5.121260183714254
-2.0142082345660977 -0.8871124924653422 6.001594470453121
-1.9255484750862117 -0.7225241470526116 5.521702992003879
-1.9924358705949983 -0.7797996192570399 5.521050378824738
-1.8325989126488145 -0.5308125374304814 5.025938698995348
-1.9915956972630504 -0.8617776973453694 6.357218915088928
-1.974389311472123 -0.7733573347238756 5.930974533529308
-1.7428186687899927 -0.4236132938105084 5.125442149348772
-0.11368666472488406 0.9436676978019211 7.681435892249244
-2.0599825044479116 -0.8363863474702545 5.9165383093337445
-1.9473811686223712 -0.6050656037191144 5.172530361710405
-0.12145194953212751 0.9850412190469153 7.774698913583416
-2.048044637080818 -0.8399197226358074 6.47045051593494
2.1691967383750224 3.1164641710709664 10.26506691728886
-2.0528743758602004 -0.7229917969744861 5.559188708637348
-0.3115563110463178 0.8892955910988392 7.4685917097548975
-2.0975927399094103 -0.765689543418088 5.983410545254911
-2.001062948125302 -0.6156172646979985 5.62445449465365
-0.18933334031137297 1.0324318737373834 8.078696442611468
-0.29390119796317454 1.0285464899521848 7.466302432055796
-2.1022266194872716 -0.7247332977590144 5.9751721555486625
-2.113750331235291 -0.725356222386754 6.186441741803866
0.025254171212458144 1.3908979696435697 8.01779208784619
-2.0815991470505844 -0.635509493163957 6.005597017139341
-2.144853323915297 -0.6866281607072168 5.981000532045556
-0.3250271215498054 1.0921782784527836 7.9062308040326315
-2.062825943468183 -0.5488057115780586 5.666347541246948
-2.1456121262765024 -0.6147120881007907 5.6618580276914745
-2.0570340531030022 -0.45780785142603647 5.455315254312498
-0.3106596315263531 1.3079463204317492 7.928756696914175
-1.8375996008289344 -0.1610513690417797 5.879510481100594
-0.07468077085287626 1.5822919810342015 9.378575612924022
-0.30602115438798533 1.4415512349473756 8.600224736052237
-0.042603605638502295 1.8067173051519583 8.665585956364612
-0.18152116929596648 1.6659563841923022 9.254354484327523
-2.199124640025927 -0.4588926391405292 6.782826738862394
-1.915483893578184 -0.11697980165359394 5.856934132013641
-0.12263844041910733 1.780536386572985 8.62548004775346
-2.211681054655164 -0.42554504186858916 6.830521175488525
-2.1211008446755852 -0.3082049051931564 5.815749245113447
-2.1959613364519863 -0.3216248279558562 6.177758642819536
-0.2732891708695176 1.9218884856103224 9.303627393425488
-0.26751982287348347 2.0029875507056243 9.146476606699702
-0.29823604862265574 1.9659463115925933 8.936496579381984
-1.9825771425001248 0.06384605650705841 5.792361672790148
-0.25087791992162783 2.091514211217959 8.878673787808815
-0.13659779005601494 2.2909910851661506 11.023032737145206
-0.40486313819050795 1.9403269941012358 8.706732202027164
-2.2782216635854033 -0.22584909777788084 6.048585156749481
-0.2792514227956425 2.2021108751216 11.064431985861683
-2.1727362836522053 -0.05618935017440358 6.019262754833223
-0.4397113542105125 2.1080805940754983 11.129746679561192
-0.49379504547296416 1.988454892725897 9.78832339678864
-2.24201652797873 -0.10510472669870378 6.309196213965863
-2.244488967741181 -0.11687000203431348 6.052242763189171
-0.2857773099418969 2.328828328884271 11.012134965966384
-2.0634284214981884 0.10091028057385411 5.863941662754026
-0.7836130341658581 1.7876960458159117 10.196452927983978
-0.7086034645890487 1.9745525555313608 10.570635588238673
-0.8950857677837427 1.7626368156140704 10.10000551079605
-0.6908931070172631 2.038669752288876 9.997522191605835
-0.43973528408763507 2.2893387974441533 9.285181409785062
-0.9117779688487688 1.849289946582906 10.419608461865383
-2.2272407246738126 0.09623510875678765 6.330607740352461
-1.0504284964923984 1.795712605040631 10.033727680427932
-0.6183166137842478 2.258710143453062 9.295343188235604
-0.9090890793388222 1.9826201580911296 10.016986097857288
-1.2044248505259527 1.6679869906983997 9.610211727924487
-1.19820403452973 1.727811056208927 9.481204825786882
-1.109761416672754 1.8553069775610027 9.690517313503687
-0.3853831224971782 2.7354681335088173 9.861073071760304
-1.0402240528703983 1.967548343750929 9.75607667002149
-0.7092776151195461 2.4427187321456274 9.538220152669004
-1.1748364024450464 1.96893081088553 9.754908852634554
-1.1656811677446135 2.1270413017277865 10.272951628602796
-0.5488437875327493 2.9197702610922156 10.263289868650205
-1.2998391369477234 1.9273316989967613 8.784682846384165
-1.2504635534129684 2.177718660817507 10.0904568792942
-1.2361690204328166 2.1663393596705696 9.205247141430505
-1.1886189213564011 2.5223582978393146 11.203202458097588
-1.266019333562445 2.370040815116705 10.48686180605243
-1.277625796737128 2.2528505868317383 9.843628342908096
-1.2097713882545416 2.5014008135042327 10.567717273239467
-1.2421680877021166 2.668193511022818 11.535459072861846
-1.4186079948640835 2.031156145261025 8.833117544208752
-1.6078206083517483 2.0273990711574923 8.929136604259432
