ply
format ascii 1.0
element vertex 413
property float x
property float y
property float z
end_header
-0.14109526574611664 -0.390788733959198 3.4285547733306885
-0.18822124600410461 -0.3341113328933716 3.379209041595459
-0.1491580307483673 -0.3259173035621643 3.362365245819092
-0.08082360029220581 -0.29575592279434204 3.199075222015381
-0.3100225627422333 -0.2922477722167969 3.302938222885132
-0.25085675716400146 -0.29235348105430603 3.305881977081299
-0.057284705340862274 -0.2700364887714386 3.063558340072632
-0.2115854173898697 -0.2827654778957367 3.2711803913116455
0.06798471510410309 -0.26957204937934875 3.11665678024292
-0.19263596832752228 -0.27788081765174866 3.262460708618164
0.025902846828103065 -0.267063707113266 3.1441919803619385
-0.1602655053138733 -0.2657146751880646 3.200745105743408
-0.13882361352443695 -0.2659508287906647 3.2038772106170654
-0.11615452915430069 -0.2593602240085602 3.177565097808838
-0.08322103321552277 -0.25022202730178833 3.1433753967285156
0.10628210753202438 -0.25115033984184265 3.1199185848236084
-0.033374231308698654 -0.2437022179365158 3.097376823425293
0.12122173607349396 -0.2402428686618805 3.048740863800049
0.3281095325946808 -0.23965230584144592 3.031019687652588
0.13236628472805023 -0.22764915227890015 2.919623374938965
0.21475888788700104 -0.22884519398212433 2.9714572429656982
0.43789976835250854 -0.22892913222312927 3.1603214740753174
0.014602546580135822 -0.20413117110729218 2.9681169986724854
0.1040213331580162 -0.20180866122245789 2.9472880363464355
0.15379351377487183 -0.19330880045890808 2.8919830322265625
0.06041453033685684 -0.18759998679161072 2.9239184856414795
-0.028728265315294266 -0.1873525083065033 2.956993579864502
0.21904240548610687 -0.18114542961120605 2.896733045578003
0.10614237189292908 -0.16106267273426056 2.8353452682495117
-0.3469942510128021 -0.14120405912399292 2.9808528423309326
-0.5141173005104065 -0.14225609600543976 3.057999610900879
-0.41501548886299133 -0.11233928799629211 2.9658632278442383
-0.3763698637485504 -0.10934312641620636 2.9491448402404785
0.08136604726314545 -0.09897094964981079 2.7451891899108887
-0.327111154794693 -0.08844602853059769 2.8934338092803955
-0.5102503895759583 -0.07609748095273972 3.07708740234375
0.12213532626628876 -0.06749173253774643 2.7575347423553467
0.4420222043991089 -0.07444234937429428 3.187879800796509
-0.11854900419712067 -0.05665026977658272 2.7280147075653076
0.4423676133155823 -0.05329722538590431 3.1907835006713867
0.36927542090415955 -0.050197504460811615 3.0918755531311035
-0.46341919898986816 -0.036946024745702744 3.0654306411743164
0.3772177994251251 -0.024876484647393227 3.127293825149536
-0.4272238314151764 -0.020953869447112083 3.026912212371826
-0.34819093346595764 -0.015545828267931938 2.935915470123291
-0.39371198415756226 -0.011319336481392384 2.956928253173828
-0.3226481080055237 -0.00593884801492095 2.913243055343628
-0.4603576064109802 -0.002482540672644973 3.067918539047241
-0.29396185278892517 -0.0032633107621222734 2.8876662254333496
-0.4097239375114441 0.005090269260108471 3.0008668899536133
-0.39199239015579224 0.008911091834306717 2.990720272064209
-0.22462697327136993 0.009115801192820072 2.830610513687134
0.14621685445308685 0.01052392739802599 2.802835702896118
0.3072853088378906 0.010791010223329067 3.025479555130005
-0.36887380480766296 0.0162538830190897 2.994697332382202
-0.3481210172176361 0.0189890768378973 2.965135097503662
0.3930765688419342 0.018794167786836624 3.139954090118408
-0.20049363374710083 0.025226539000868797 2.8122315406799316
-0.31542912125587463 0.02677646465599537 2.9369733333587646
-0.17302386462688446 0.03278612345457077 2.773247718811035
0.0932672917842865 0.03151892125606537 2.728843927383423
-0.11799141764640808 0.0324537493288517 2.7152462005615234
-0.2559792995452881 0.038938529789447784 2.8623945713043213
-0.23720620572566986 0.041239529848098755 2.8293890953063965
-0.21588942408561707 0.0413551852107048 2.841533899307251
-0.19854405522346497 0.046851996332407 2.8205580711364746
-0.09312637150287628 0.04437023773789406 2.7013022899627686
-0.06157539412379265 0.04532089829444885 2.660966396331787
-0.1643909364938736 0.05271100997924805 2.779599905014038
0.3061474561691284 0.06396643072366714 3.016265869140625
-0.13813091814517975 0.06153791770339012 2.7540738582611084
0.062168966978788376 0.06095752865076065 2.7172281742095947
-0.11233463883399963 0.06362104415893555 2.727100372314453
-0.0869888961315155 0.07241062819957733 2.716346025466919
-0.05601084604859352 0.07427978515625 2.6703298091888428
0.01293850876390934 0.080019012093544 2.658690929412842
0.0654132142663002 0.09240397810935974 2.7199254035949707
-0.38230517506599426 0.11474063992500305 3.05065655708313
0.06891661137342453 0.11907090991735458 2.723705291748047
0.016467414796352386 0.11923548579216003 2.676175117492676
0.45673248171806335 0.16038069128990173 3.215735912322998
0.4688732326030731 0.1810208112001419 3.2489044666290283
-0.4306149482727051 0.17783819139003754 3.128112316131592
-0.3920438587665558 0.18483617901802063 3.0985300540924072
0.48071974515914917 0.2078399956226349 3.281005620956421
-0.3223875164985657 0.20194323360919952 3.0334653854370117
0.19452770054340363 0.193935364484787 2.915837526321411
0.3765612840652466 0.21299457550048828 3.1509971618652344
-0.36520734429359436 0.21411451697349548 3.081463575363159
-0.2655312120914459 0.2059691846370697 2.9721078872680664
0.4973039925098419 0.24154458940029144 3.3157668113708496
-0.29991769790649414 0.2249302864074707 3.014059066772461
0.12520967423915863 0.2117956578731537 2.8219597339630127
-0.17649342119693756 0.22084777057170868 2.8775551319122314
-0.2859887182712555 0.2446630597114563 3.0094990730285645
0.03503476083278656 0.22192694246768951 2.712050199508667
-0.21647168695926666 0.24224720895290375 2.9380428791046143
0.18855439126491547 0.24023202061653137 2.9265317916870117
-0.418956458568573 0.2672384977340698 3.1698756217956543
-0.08027353137731552 0.23505353927612305 2.786468982696533
0.3161522448062897 0.2614316940307617 3.0770490169525146
-0.1464182585477829 0.24865972995758057 2.8681533336639404
-0.3783285319805145 0.2750355005264282 3.1293373107910156
0.4027506113052368 0.2841215431690216 3.216550350189209
-0.02945259027183056 0.24558404088020325 2.7459521293640137
0.2092527598142624 0.26090508699417114 2.941406011581421
-0.35207599401474 0.2766832709312439 3.056008815765381
-0.18515539169311523 0.26225054264068604 2.9106698036193848
-0.1127912625670433 0.25504636764526367 2.8219716548919678
-0.32619521021842957 0.28181707859039307 3.0714142322540283
-0.2899278700351715 0.28832539916038513 3.0192854404449463
-0.05794878304004669 0.26694709062576294 2.7783279418945312
-0.2547551989555359 0.2912328839302063 3.000063419342041
-0.1026601493358612 0.2729279100894928 2.80660080909729
-0.18269634246826172 0.3056108057498932 2.9298198223114014
-0.16583038866519928 0.30689752101898193 2.9194958209991455
0.22094537317752838 0.30921635031700134 2.9675722122192383
0.10484892874956131 0.29866257309913635 2.8036627769470215
-0.125568687915802 0.3091549575328827 2.8236584663391113
-0.09843342751264572 0.3170563578605652 2.854158639907837
-0.06879817694425583 0.3205234110355377 2.8249518871307373
-0.03945567458868027 0.32198667526245117 2.81152606010437
0.43674135208129883 0.37570473551750183 3.2803425788879395
0.25044944882392883 0.35700222849845886 3.0346803665161133
0.32928094267845154 0.3690681755542755 3.1357319355010986
-0.1404731422662735 0.34702980518341064 2.9337503910064697
-0.014566938392817974 0.3281051516532898 2.779400587081909
0.053533755242824554 0.33089902997016907 2.75624942779541
0.11541274935007095 0.3400799036026001 2.828624725341797
-0.09216787666082382 0.35301536321640015 2.8700475692749023
0.05423634126782417 0.3500925600528717 2.763036012649536
-0.049355801194906235 0.35971006751060486 2.820188045501709
-0.020743701606988907 0.3603006601333618 2.801593542098999
-0.4329546391963959 0.4323368966579437 3.305272340774536
-0.4135712683200836 0.4377821087837219 3.297276735305786
-0.13404342532157898 0.3892795741558075 2.933964252471924
0.3535122871398926 0.42001375555992126 3.1689624786376953
-0.3888244032859802 0.43501976132392883 3.2459559440612793
-0.07619978487491608 0.39558205008506775 2.8627851009368896
-0.10627042502164841 0.40332648158073425 2.8942339420318604
0.451887845993042 0.4626601040363312 3.3147284984588623
-0.3088085949420929 0.44621068239212036 3.172330141067505
0.1199290081858635 0.40254029631614685 2.8508102893829346
0.5712631940841675 0.4912666976451874 3.5001208782196045
0.22309325635433197 0.4315696656703949 3.03574538230896
-0.03689167648553848 0.4050852954387665 2.829463005065918
-0.00510498508810997 0.40184614062309265 2.80810809135437
0.5420479774475098 0.5023529529571533 3.4323413372039795
0.3450547456741333 0.4904283285140991 3.1808178424835205
0.25350695848464966 0.47753190994262695 3.07810115814209
0.4914384186267853 0.5274945497512817 3.3776824474334717
0.12382952868938446 0.4564228653907776 2.868328809738159
0.3264087736606598 0.5453490018844604 3.2077713012695312
0.036321088671684265 0.4877557158470154 2.7957558631896973
0.07467401772737503 0.49209168553352356 2.820284843444824
0.14616307616233826 0.5126311182975769 2.919095516204834
-0.30028581619262695 0.5628719329833984 3.198274612426758
0.369529664516449 0.5783134698867798 3.2424895763397217
-0.23378722369670868 0.5661792755126953 3.129561185836792
0.5719736218452454 0.6417531967163086 3.505005359649658
0.32813385128974915 0.5952216982841492 3.192756175994873
-0.16315147280693054 0.5750207304954529 3.052499532699585
-0.12164565175771713 0.5842079520225525 3.0451552867889404
0.35010766983032227 0.6214061379432678 3.1960978507995605
0.4741722345352173 0.6555579304695129 3.3681015968322754
-0.13834735751152039 0.6004977822303772 3.047027826309204
0.2564826011657715 0.6022209525108337 3.0668487548828125
-0.21822580695152283 0.6341219544410706 3.1561508178710938
0.08843264728784561 0.5788319110870361 2.859968900680542
-0.04814820736646652 0.6003086566925049 2.9524924755096436
0.1468028873205185 0.5973561406135559 2.9309632778167725
-0.11433221399784088 0.64466792345047 3.0363073348999023
0.16489969193935394 0.6298967003822327 2.9633538722991943
0.14916034042835236 0.642814040184021 2.918541431427002
0.2559334933757782 0.6852241158485413 3.1079680919647217
0.31629064679145813 0.7357322573661804 3.186152696609497
0.4124539792537689 0.7716242074966431 3.3277554512023926
0.48388078808784485 0.8130660653114319 3.434774398803711
0.2579136788845062 0.7408617734909058 3.085663318634033
0.40178748965263367 0.8441633582115173 3.331713914871216
0.17598289251327515 0.7819356322288513 2.9973995685577393
-0.36453893780708313 0.9227115511894226 3.5021421909332275
0.31785809993743896 0.8825349807739258 3.2415409088134766
0.18541277945041656 0.8373809456825256 3.0236663818359375
0.10544755309820175 0.8595830202102661 2.970187187194824
0.1985623985528946 0.9018442034721375 3.0690979957580566
-0.16403204202651978 0.9877302646636963 3.346606731414795
-0.13790622353553772 0.9810868501663208 3.277782917022705
0.254116415977478 0.9471849799156189 3.131253480911255
0.20221400260925293 0.9546853303909302 3.0733280181884766
0.6780346035957336 1.1998652219772339 3.7635765075683594
-0.16052357852458954 1.1192492246627808 3.3696632385253906
0.6176186800003052 1.2354297637939453 3.731306791305542
-0.11147288233041763 1.14827561378479 3.360004425048828
0.3500910997390747 1.1307724714279175 3.307297706604004
-0.01970442198216915 1.1320127248764038 3.233656644821167
0.22622087597846985 1.096245288848877 3.130518674850464
0.14207056164741516 1.0809741020202637 3.054941415786743
0.7252480983734131 1.3730225563049316 3.857722520828247
0.4430352449417114 1.231561303138733 3.4466311931610107
-0.13608399033546448 1.2399523258209229 3.420548439025879
0.44435855746269226 1.2740041017532349 3.48215389251709
0.23495563864707947 1.153698205947876 3.150618076324463
0.3177258372306824 1.1989890336990356 3.2765591144561768
0.4769188463687897 1.2960532903671265 3.501985788345337
-0.11726115643978119 1.287805199623108 3.4344401359558105
-0.01672196388244629 1.246780514717102 3.290184497833252
-0.12229196727275848 1.3198211193084717 3.4523980617523193
-0.18056292831897736 1.3590197563171387 3.53983736038208
-0.13427944481372833 1.3602265119552612 3.4649784564971924
-0.06650909036397934 1.32443106174469 3.375290870666504
0.04603882506489754 1.2946361303329468 3.2900466918945312
0.07095345854759216 1.2865641117095947 3.2293572425842285
0.4990084767341614 1.4172383546829224 3.5391128063201904
-0.05603930726647377 1.3836911916732788 3.445142984390259
0.2587087154388428 1.2972376346588135 3.223046064376831
-0.10312128812074661 1.4129525423049927 3.476478099822998
0.038752853870391846 1.3325636386871338 3.271258592605591
-0.05980939790606499 1.4195307493209839 3.454641103744507
-0.028540218248963356 1.416603446006775 3.41998291015625
0.11945195496082306 1.3195785284042358 3.1814939975738525
0.2630489468574524 1.3440736532211304 3.22918963432312
0.038843028247356415 1.418379783630371 3.3401777744293213
0.12445973604917526 1.3747514486312866 3.2062466144561768
0.07122199237346649 1.4090074300765991 3.28468918800354
0.10875764489173889 1.418110728263855 3.2720630168914795
0.20611628890037537 1.4903401136398315 3.1933887004852295
-0.29724761843681335 -0.27277660369873047 2.9385898113250732
-0.21145863831043243 -0.26048362255096436 2.8804268836975098
-0.1797829419374466 -0.25910428166389465 2.8705360889434814
-0.04407668858766556 -0.22605256736278534 2.8686470985412598
-0.034967806190252304 -0.22194936871528625 2.833409309387207
-0.014076849445700645 -0.18464720249176025 2.8573122024536133
-0.35689544677734375 -0.12284016609191895 2.950331449508667
-0.3918990194797516 -0.11745350807905197 2.9671852588653564
-0.10265971720218658 -0.08923906087875366 2.7292253971099854
-0.31058046221733093 -0.08552893251180649 2.884052038192749
-0.06826891005039215 -0.0514034740626812 2.662076711654663
-0.01185487862676382 -0.04597671329975128 2.5999503135681152
-0.4832025170326233 -0.02363150753080845 3.0629076957702637
-0.4138791263103485 -0.014994931407272816 2.9937903881073
-0.3734918534755707 -0.006186877842992544 2.96364164352417
-0.2629879117012024 0.010983312502503395 2.860872983932495
-0.49984878301620483 0.00721111660823226 3.0950751304626465
-0.42591676115989685 0.0070044719614088535 3.019174814224243
-0.14305463433265686 0.025050485506653786 2.745105504989624
-0.18571408092975616 0.024669192731380463 2.793734550476074
-0.33423420786857605 0.021674131974577904 2.936605930328369
-0.289091557264328 0.028061779215931892 2.8992581367492676
-0.2692033648490906 0.033465370535850525 2.8877735137939453
-0.07285582274198532 0.051006633788347244 2.683928966522217
-0.49503618478775024 0.0760272964835167 3.118164300918579
-0.4722921848297119 0.17311380803585052 3.1637935638427734
-0.4129050374031067 0.21794742345809937 3.1232142448425293
-0.3394649028778076 0.22166623175144196 3.0489771366119385
-0.39240193367004395 0.23181046545505524 3.108325242996216
-0.15798330307006836 0.26023805141448975 2.898193836212158
-0.4623773396015167 0.26956722140312195 3.2025046348571777
-0.13576585054397583 0.2797773778438568 2.881852388381958
-0.3119037449359894 0.2822664976119995 3.042640447616577
-0.45822960138320923 0.29077938199043274 3.2062766551971436
-0.20529839396476746 0.2996950149536133 2.9628798961639404
-0.12767384946346283 0.3117707669734955 2.89082670211792
-0.14965160191059113 0.30738452076911926 2.905451536178589
-0.12803299725055695 0.3476290702819824 2.90862774848938
-0.1165056824684143 0.3629414141178131 2.882033109664917
-0.07415350526571274 0.3736162781715393 2.871446371078491
-0.11795270442962646 0.39487192034721375 2.925340175628662
-0.3510514199733734 0.43286964297294617 3.1803324222564697
-0.25211185216903687 0.44837918877601624 3.095263957977295
-0.2036062330007553 0.45860037207603455 3.0656769275665283
-0.09359527379274368 0.47637245059013367 2.986138105392456
0.01181311160326004 0.49133726954460144 2.865015745162964
-0.19601944088935852 0.5721362829208374 3.09814453125
-0.4174598455429077 0.5823501944541931 3.3249430656433105
-0.08615922927856445 0.6005308032035828 3.0022006034851074
-0.4120541214942932 0.6126853823661804 3.335435152053833
-0.17160631716251373 0.6464474201202393 3.1119041442871094
-0.15095211565494537 0.647070050239563 3.0979630947113037
-0.3723689913749695 0.8558770418167114 3.441314935684204
-0.15601637959480286 0.9790206551551819 3.2872047424316406
-0.08428461849689484 1.1283328533172607 3.3069963455200195
-0.32664090394973755 1.1561968326568604 3.556567668914795
-0.32612985372543335 1.1861367225646973 3.566880941390991
-0.08946972340345383 1.2390415668487549 3.3675320148468018
-0.21254278719425201 1.2576886415481567 3.4938526153564453
-0.17014722526073456 1.2631512880325317 3.451472282409668
-0.2540331482887268 1.2915571928024292 3.5526750087738037
-0.17122337222099304 1.2919038534164429 3.473330020904541
-0.17410407960414886 1.316641092300415 3.499866485595703
-0.24395281076431274 1.3405380249023438 3.5675532817840576
-0.21109868586063385 1.382326602935791 3.5569326877593994
-0.010571891441941261 1.3720786571502686 3.364671468734741
-0.18145284056663513 1.3872990608215332 3.530158042907715
-0.141793355345726 1.3945345878601074 3.4954113960266113
0.038045886904001236 1.3703229427337646 3.3035008907318115
-0.2715601325035095 1.465397596359253 3.681107759475708
-0.18642117083072662 1.4652067422866821 3.5561418533325195
0.18595966696739197 -0.26653122901916504 2.866974115371704
0.1528465896844864 -0.25403648614883423 2.8953936100006104
0.22417670488357544 -0.22596174478530884 2.835770845413208
-0.0931951105594635 -0.4213455021381378 3.4044249057769775
-0.10235176235437393 -0.4252831041812897 3.468055248260498
0.003859762568026781 -0.3077754080295563 3.1146857738494873
0.027571721002459526 -0.2844266891479492 3.0555739402770996
0.10253195464611053 -0.19205734133720398 2.7615907192230225
-0.06891171634197235 -0.3166848421096802 3.169950008392334
0.11437883228063583 -0.19465534389019012 2.8192198276519775
0.08637004345655441 -0.19479309022426605 2.846381902694702
-0.13635827600955963 -0.3320752680301666 3.2311789989471436
-0.06206774339079857 -0.2663264870643616 3.0530405044555664
0.04778782278299332 -0.22406193614006042 2.9309489727020264
-0.17635351419448853 -0.33604177832603455 3.269378900527954
-0.18577425181865692 -0.35844358801841736 3.3648040294647217
-0.15160536766052246 -0.27793532609939575 3.1082980632781982
-0.15027117729187012 -0.2724834382534027 3.085993766784668
-0.1713356375694275 -0.2799609899520874 3.1329870223999023
-0.1750728338956833 -0.28699904680252075 3.179013967514038
-0.17094072699546814 -0.28353115916252136 3.1561977863311768
-0.23261870443820953 -0.29183459281921387 3.2037570476531982
-0.1539912223815918 -0.06916885823011398 2.8176259994506836
-0.2658940851688385 0.01654437556862831 2.825601816177368
-0.17626169323921204 0.04065045341849327 2.798161268234253
-0.3210783302783966 0.010283181443810463 2.9184505939483643
-0.482308954000473 0.06702591478824615 3.1151134967803955
-0.025573521852493286 0.2925852835178375 2.7725043296813965
0.04361966997385025 0.33359041810035706 2.759910821914673
-0.4810291528701782 0.15017999708652496 3.154426336288452
-0.03904400020837784 0.16671979427337646 3.7156083583831787
-0.07675202190876007 0.2229868769645691 3.6510095596313477
-0.021315474063158035 0.2915365993976593 3.7661519050598145
-0.16010195016860962 0.2913455367088318 3.638322591781616
-0.08285809308290482 0.31622114777565 3.729463577270508
-0.20036107301712036 0.34102416038513184 3.5745253562927246
-0.220870703458786 0.345075398683548 3.5909335613250732
-0.12302244454622269 0.3637025058269501 3.6938302516937256
-0.4266681671142578 0.3552530109882355 3.2306954860687256
-0.24834595620632172 0.3656720221042633 3.5329995155334473
-0.3844705820083618 0.3693252205848694 3.341862678527832
-0.28173160552978516 0.39152345061302185 3.488325834274292
-0.2952636480331421 0.40344879031181335 3.4534106254577637
-0.4086737036705017 0.4181120693683624 3.177406072616577
-0.2154538333415985 0.4311290979385376 3.568326473236084
-0.13513964414596558 0.4361308515071869 3.6850826740264893
-0.31930017471313477 0.42598313093185425 3.43811297416687
-0.3425431549549103 0.44662347435951233 3.4075937271118164
-0.17382650077342987 0.4655438959598541 3.6332130432128906
-0.28048527240753174 0.47099289298057556 3.498664379119873
-0.19905345141887665 0.47599703073501587 3.6113767623901367
-0.21868577599525452 0.48781684041023254 3.5851633548736572
-0.3136562407016754 0.48923248052597046 3.461858034133911
-0.22354769706726074 0.5110212564468384 3.5685975551605225
-0.33236247301101685 0.5159597396850586 3.4332971572875977
-0.3591553866863251 0.5345982313156128 3.392822742462158
-0.27730271220207214 0.5452128648757935 3.501826286315918
-0.41063085198402405 0.5670223236083984 3.321765422821045
0.10808049887418747 0.8748934268951416 2.9755284786224365
0.017520561814308167 0.7758954763412476 3.9541566371917725
-0.003872445086017251 0.7754146456718445 3.9196598529815674
-0.0004923685919493437 0.8151537775993347 3.929860830307007
-0.0947413444519043 0.803686261177063 3.840198516845703
-0.012337500229477882 0.8455114960670471 3.8857169151306152
-0.0890253484249115 0.8326928615570068 3.818760871887207
-0.13567905128002167 0.8469619154930115 3.775522470474243
0.07423277199268341 0.9055511355400085 4.025177001953125
0.010361614637076855 0.8935766816139221 3.9669477939605713
-0.09902164340019226 0.8719568252563477 3.823052167892456
-0.1461137980222702 0.8808575868606567 3.777890682220459
-0.20580007135868073 0.8658285737037659 3.7246274948120117
0.012403714470565319 0.9293450713157654 4.014150619506836
0.004177871160209179 0.942293107509613 3.9406278133392334
-0.1550629734992981 0.9073165655136108 3.7510251998901367
-0.1678490787744522 0.9341350793838501 3.7141058444976807
0.02367783896625042 0.9876695871353149 4.0097150802612305
-0.23637449741363525 0.9254934191703796 3.6390836238861084
-0.08613245189189911 0.9699841141700745 3.8664519786834717
-0.14054130017757416 0.9600059986114502 3.7979395389556885
-0.2342575341463089 0.9404395818710327 3.6761415004730225
-0.1245654746890068 0.9888066649436951 3.8146398067474365
-0.2713114619255066 0.9456924200057983 3.6021440029144287
-0.02163710817694664 1.0218300819396973 3.971684217453003
-0.24431148171424866 0.9520533680915833 3.648759365081787
-0.05553881451487541 1.0236459970474243 3.932095766067505
-0.29210951924324036 0.9679344296455383 3.576728582382202
-0.19563212990760803 1.0059858560562134 3.7307889461517334
-0.08995330333709717 1.0375036001205444 3.8922834396362305
0.04844529181718826 1.0925112962722778 4.052293300628662
-0.07498116791248322 1.0677287578582764 3.9045255184173584
-0.1815015971660614 1.0370819568634033 3.7424705028533936
-0.1143987700343132 1.075836420059204 3.8482086658477783
0.0023320268373936415 1.1248819828033447 4.012120246887207
0.11079880595207214 1.1804817914962769 4.1471099853515625
-0.14566318690776825 1.1132700443267822 3.8198258876800537
-0.16912111639976501 1.1281054019927979 3.7827584743499756
0.15310098230838776 1.3634639978408813 3.17710280418396
0.010442028753459454 1.1782344579696655 4.232666492462158
-0.10352018475532532 1.1690170764923096 3.8841869831085205
-0.03036496415734291 1.208713412284851 4.016378879547119
-0.19260726869106293 1.149141788482666 3.7483651638031006
-0.123006172478199 1.205737590789795 3.8598883152008057
-0.13045629858970642 1.2097668647766113 3.8352344036102295
-0.08434784412384033 1.247509241104126 3.9474170207977295
-0.10308369249105453 1.2593178749084473 3.924069881439209
-0.18260957300662994 1.2404491901397705 3.7827563285827637
-0.35549473762512207 1.1780222654342651 3.5632224082946777
0.168294757604599 1.5164977312088013 3.233947277069092
-0.19339808821678162 1.318039059638977 3.8137600421905518
-0.0472857840359211 1.4510935544967651 3.3621928691864014
-0.18258136510849 1.35930335521698 3.790595769882202
-0.12293694913387299 1.4383320808410645 3.4395523071289062
-0.10275223106145859 1.4614466428756714 3.4818787574768066
-0.15542715787887573 1.4488574266433716 3.5351758003234863
-0.20556415617465973 1.4372003078460693 3.571300745010376
